1.86191154512 0.741551478349 1.40020784803
0.0875575495066 1.44613991314 -1.22726476776
-0.524708603566 3.40683746234 -1.34704901976
-1.22515407682 1.54939895993 0.571528025358
1.03646821595 0.0306643592121 -0.197634308842
-0.995418401229 2.38200551099 -0.970843933235
-1.44836854802 3.95441519773 0.903305751986
2.18636716715 -1.15244538409 1.41084416586
-0.330346131142 -0.0200743415739 -0.624089926233
-0.925306495986 2.20960281775 0.889621662936
2.63837596078 0.898532845026 1.07461718853
2.51620829936 -1.54988652644 0.354963481128
-1.1294874659 4.08959114906 1.20904818541
2.27342554731 1.73028458269 -0.670638159337
-0.548413063605 0.845078028202 -0.273814864898
-1.28507658204 3.36614247713 -1.45586893089
-0.290186517406 3.98897660852 -1.69534824806
-0.681655703473 2.29360723673 -1.13548894293
-0.576836782292 3.53683598783 -1.83326904539
-0.700343130631 2.46264240534 1.26948129661
2.67675306481 0.430059461406 1.24639034811
1.68996801985 -1.31294667969 0.696095967629
-1.54956128266 1.88506594191 0.563688746888
2.587447445 0.698163461762 -1.26665669123
0.293960831193 1.21461913521 0.667413595871
-0.883234753372 -0.35876722494 -0.44811467962
-1.37245424635 2.72978163856 -0.628271575395
1.68470046696 -1.20615383875 0.900062233703
-0.127129856252 1.47531132026 0.652885980908
-1.19738408136 2.40543894279 0.682673731163
2.34159357331 1.15527090204 -1.47434740157
-1.06483417533 2.66097008419 -1.63009786591
0.393036767313 2.0369459226 1.66702073091
-1.46739988439 2.55852959264 -0.0152425012465
-0.791881052732 4.00992638492 -0.830546526708
-0.584347934842 2.25791082643 -1.18796014539
1.92850822947 -1.65691549743 -0.323001892461
1.8288557549 1.45431830726 -0.681503500852
-1.33259272033 -0.202125715506 -0.189529895646
1.0968258758 -0.148607861021 0.429501474677
-0.087198951876 2.36383723878 1.84199528343
-1.41655795711 3.44928449427 -1.30058463836
1.39530124799 -0.911044616562 -0.736548162474
-0.651245397077 0.787460197156 -0.465208115169
2.83210519596 0.012226856232 -0.87809002299
-0.739097599773 2.22763118013 -1.09367584553
-1.87681154105 2.36153483195 -0.263101649153
-0.369129818663 1.81774380123 0.899501941771
-0.75799234648 3.79262077774 1.0479848565
0.0784612916166 3.9868166175 -1.68242358897
2.9105123872 -0.484576174583 0.0626178702891
-0.670913864615 3.34916123436 1.80464376929
-0.64690981018 -0.143184717731 0.643087307048
-0.816951799136 2.91921074877 1.76906606525
-0.902807770774 0.768797413777 0.620879920772
0.208992349542 1.14593100357 -0.290269320593
-1.11343479113 1.82032953324 1.11953833272
-0.766549897319 4.37288801395 1.20277530727
-0.811173047542 0.831328065079 0.492055955297
-1.39983713054 3.52551767713 -1.25268396878
-0.41058653576 1.18482096163 -0.67208370343
-0.216829435387 -0.508715422933 0.21605398982
-0.964681311461 -0.972508523585 -0.0391607128534
-1.01963409517 4.2068746475 1.14548690083
2.78835540032 -0.901542110005 0.507422931317
-0.251116592762 -0.494933893666 -0.361728508035
-0.433582426445 3.75213544092 -1.25372234302
-0.760238697159 1.7317594259 1.29589666944
-0.129850915357 2.22906277114 1.51993007941
-0.435635685728 3.05105745219 -1.93078696
0.332355091948 3.00514378016 1.90232290991
-1.41502209562 3.22237486861 -0.489514205014
1.30974678178 0.145785767465 0.969858749962
-0.0866400104416 3.73807612469 1.82116691578
-1.33526167127 -0.926430568199 0.161986459241
-0.0832600619684 4.08170422986 1.62395599137
-1.72490411769 3.75998985819 0.649235741284
-0.622754639327 1.70561351936 -0.509019935239
1.46417444497 0.842724679462 0.945291193803
-1.60562074183 1.99632642113 0.60580874477
-0.039465127254 4.84856602952 -0.725904419604
0.241125050504 1.02695772156 0.0400352845025
-0.149010822608 1.71649092199 -1.50642050673
-0.0133430535539 4.02463080131 1.43075444569
0.233433865993 4.06888089883 1.57030141891
-1.86933900549 0.390005763766 0.0157109676842
1.25645942546 -0.281203529913 -0.883410718468
-1.12399459039 2.94320443643 1.03057758701
-0.876393672784 1.99218039796 -1.4478193964
-1.51100704007 2.79743203485 -0.029395883937
2.48994861203 -0.727728366419 1.43400935369
-1.25314006278 2.11969832543 1.22679921297
1.29246944483 -0.412872573067 0.946925463965
-1.1713861994 2.53135920987 0.849811442752
2.86274585264 -0.751742863525 0.189711237391
-1.77305959021 0.0899140772891 -0.589809160302
-0.62740449898 1.4892931517 1.10823469499
2.51260230493 -0.592686157292 -1.49531848266
-0.822066236824 4.24394867181 -0.404569084354
-0.165276462339 2.12157040848 -1.40180463702
-1.01550276162 4.62759410324 -0.532874128498
-0.623257059501 2.31806134908 1.74304943311
-0.201495351452 -0.317590204101 0.41923920656
2.66124107862 -1.04575870492 0.757812657012
-0.60846661341 1.40306427918 -0.944565002314
-0.966541735345 1.30412619563 0.317929252781
-1.98170432981 -0.149444282012 -0.0190909243041
-1.84554847585 2.38145103766 -0.165128788105
-0.668464242935 2.31034435862 -1.75414457322
-0.209213845851 1.19539280081 0.783117124772
0.0265359203139 3.09820424354 1.9723338168
1.65634692538 -0.939051148666 -1.13146577678
-1.36002836841 4.28719147302 -0.557184664501
-1.5898572284 3.73207933492 -0.914795345121
-0.260873748932 2.89529211208 1.9701966252
-1.18370529794 4.130928041 -1.12234256799
2.00234703517 0.685112155259 -1.58296194473
2.67073079964 -0.854467874366 -1.05677392999
0.253694774374 2.1680654242 -1.68587399765
1.97560794925 -1.54592920644 -0.662748702843
-0.837663705945 0.664702456465 -0.606128923404
2.77994713341 1.00099730711 0.251280970753
-0.18759503634 -0.45184211049 -0.238501180794
0.41926779835 1.05745704918 0.0514197827264
-0.0105241844434 1.24438003159 0.245602300989
2.60411926474 1.30758800047 0.622577291379
-0.406817784293 4.40441468413 0.44465439326
-0.517492412256 1.71741703525 1.37470134396
2.78141392503 0.4336506881 0.896019552509
0.194902653475 3.97357644858 1.55353613136
0.0647624629233 1.05987638008 -0.343321739831
2.68963200681 -0.382167648556 -1.16712418184
-1.2572240133 0.280175800626 -0.264695958312
-0.045737054063 2.65865856909 1.95324895167
2.74622959497 1.09875784274 0.452650284438
-1.94223347738 0.294920096367 -0.0562702023733
-1.61079352006 1.85404007939 0.0389704715097
-0.742577712223 0.717231665167 -0.580415861815
-1.6446334008 -0.525262228727 0.478219433621
-0.305504853679 3.63114821525 -1.82253853269
-1.76229352998 3.18436831315 -0.894069961711
-1.05984243418 -0.820539623246 -0.529817630923
2.44883527828 -0.872272837028 1.4324444918
2.10492884887 -1.6096800154 0.758627402616
2.70705982144 1.13609683411 0.406853399526
-1.09222847345 3.16060152187 -1.63720716632
1.09180062119 0.424268348443 -0.0058595047221
-0.539611623928 1.69420064284 -0.583600891129
-0.825823514798 3.89388850391 0.919554790752
-1.90395145416 3.44735396593 -0.0276926341674
-0.829722734577 4.0581067479 1.42509461482
-0.830079958267 1.62584805266 1.18356509049
2.2860941249 0.233304877415 -1.82141661928
-0.543392762778 0.717820212141 0.433529259784
2.09664827768 -1.05999410722 1.41987984972
-0.441378430563 1.70983558304 -0.676285914286
-0.151749668908 2.81932542891 -1.94296150459
1.69616551959 1.41423383877 0.469077313795
2.78841133648 0.903451036211 0.621303445704
-1.38403072751 -0.0685210085873 0.787273398726
1.27009333393 -0.0673885548793 -0.999314808481
1.97906301276 -1.64872722811 0.454530324884
1.94265707691 -1.66634058539 -0.177557811702
-1.02953066883 1.8398610141 1.20953303412
-0.196142511494 -0.475208634089 -0.297620994596
-0.964360714832 2.61931407663 1.6736621713
-1.39792534661 2.3315874998 -1.24687300015
-1.43595938836 -0.222876025988 -0.612455281096
-1.09082062372 1.36635589807 -0.00375960276407
1.95023303898 -0.512677095142 -1.5752468509
1.76769836382 -1.3960113418 0.632688074041
2.36174828929 1.77780650803 -0.436797775178
-1.26363502865 2.56987673826 0.71395456409
-0.268456470028 4.5200852396 0.453579025525
1.30725056923 0.594413931044 0.868505740396
2.50907125935 -1.63811698015 -0.0199612099496
0.0375027757651 2.49017480565 -1.71582896699
1.36065377343 0.650207788192 -0.924517919818
-0.0751863587714 2.10742292781 -1.4582440875
0.23310561637 2.41843209118 1.80326090409
0.159406897492 3.94739740216 1.74089290265
0.314944984199 4.88989755133 0.516121024489
1.1366603348 -0.434146294206 -0.558940496993
-0.575031642019 3.04276084149 -1.39149220812
-0.714611908517 2.04185348893 -0.958585870413
-0.928657010888 2.72187925698 1.69500300532
1.69254179337 -0.852913500469 1.18666993863
-1.93709701934 -0.207515280134 0.197549107083
2.14523392815 -0.993672454744 -1.51014592171
0.347301265542 4.47805122822 -1.28347917248
-0.997126456267 0.353114613251 -0.0924995500398
2.04811894076 -0.860816287357 -1.50775603782
-1.37913975976 0.394197429408 0.788680702167
0.202309562821 1.15949074126 0.697090615552
2.75253663182 -0.0165360633489 -1.06368837672
0.257624048918 4.23322402038 -1.42108978249
-0.59922173651 4.28230537736 0.624875194242
0.320030416496 4.54382457625 1.22557686527
2.18943100779 0.950146310761 -1.53185635892
-0.180907887941 3.51529092109 -1.53269451941
-1.02128784313 3.68554654991 -0.902333064461
1.57627830008 0.898379913429 -1.05982147141
-1.69419100165 -0.625720502644 0.181928351899
-0.362690121603 4.92789889771 0.256492245891
-1.22068440896 2.11031917279 0.0470258751086
1.24510755937 0.681287422121 -0.641811103761
-1.84201552402 0.198860005055 0.484745635563
1.83802208304 -0.957756698585 1.25789095803
2.04038889024 0.279289820255 -1.70671176841
-1.04279200137 3.54878159328 0.937507679526
-0.731972903833 0.777018641946 -0.56354804923
-0.517583983024 4.07878176751 -1.5493363437
2.95317713023 -0.36627021294 0.376066585729
-0.599517238626 3.42189218556 1.83189473641
1.17008408905 0.557412319908 0.396129763223
-0.473979008863 4.62627854487 -1.04944895646
-1.24700385694 3.88258965068 0.0207909355921
1.04529105586 0.286318748128 0.117044877138
-0.970589267648 -0.389611608306 -0.0594938635405
1.69312353177 1.13714474776 -0.976469399085
2.68774209458 0.115605733161 -1.2533040631
-1.28710177817 2.22515772486 0.168642164174
-0.28894612542 3.16308110621 1.57301010542
-0.57976006811 2.71829568059 -1.84454113411
-0.209721554145 -0.515160062016 0.129004202884
1.64533313055 1.07542191612 -0.901095022977
-0.652744543601 4.74596251454 -0.574223479843
-0.0766848184006 4.5655312986 1.18501676374
-0.0587073108975 1.34410851466 0.499680781398
-0.285108482852 4.82463876656 -0.748770866545
-1.73048670724 3.37926600989 0.824163883489
0.12824511079 1.70868166999 1.30483420138
2.2449156721 1.69205441828 0.677197475257
2.79932393327 0.970420585662 0.143392483446
-0.983860398841 -0.931764515495 0.217940439931
-1.33231953969 0.852251482029 -0.397311386644
1.7461524852 -1.50867666573 -0.269675449272
-0.121575622175 1.42138971485 -1.14083364413
2.70874415449 -0.976170320675 0.795044153797
2.6792077495 -1.17761401787 -0.628101301427
-0.820789330593 3.44363917383 1.17770651491
-0.892381823849 4.67826590594 -0.49465289723
-1.30915861558 1.62191849017 0.552353647897
-1.57699973303 1.84866492854 -0.196471134456
-0.257601903792 1.3367964732 -1.03074165672
-0.0194483747951 4.20027156765 -1.5419000634
-0.61572144773 -0.825685419384 0.335204171972
-0.437941282355 -0.108229851374 0.778527940435
2.70496743077 0.803390088511 0.897948455779
0.471911908995 3.51717619809 -1.87161565835
2.91235538373 0.502277785001 0.0894797931542
-0.775939478602 -0.274654050839 0.930334918367
-1.40809473855 1.72664099294 -0.464744460806
-0.588628558905 2.05916007843 1.06352409208
2.64141510752 1.10905573184 0.814908286645
2.11357162751 1.25848627858 -1.21869469766
2.57870030024 -0.316245540854 -1.4523096662
0.164885743061 3.61410819645 -1.88679329854
1.84824759872 0.369168640501 -1.56223648433
2.17512110753 -0.360360187469 -1.76184806283
0.373386094438 2.74355674123 1.89990551723
0.108208211138 1.25706084804 -0.56468463501
1.29301113831 -0.943464541936 0.262495726564
-0.861120179969 -0.352331361457 0.690393330903
1.36309433618 -0.373736750946 1.0149185949
0.331813161344 1.76428822212 -1.47615174437
-0.606514393759 4.79880652683 -0.450837024603
-1.88372437109 3.6676024251 -0.0644951118761
-0.48748964896 4.74502920289 0.726270120411
-0.696779977679 4.12168097713 1.48270763892
1.95826315342 -1.50254657932 0.728381860568
0.259762240752 4.16710160091 1.50866148306
2.27817081686 -1.83879802227 0.310157265495
0.147542199996 4.34719213415 1.42859579788
2.4920394115 -0.734276690587 -1.49975221835
2.11678465924 -0.343670132153 -1.74103374646
-1.19100500172 0.310252898325 0.104163830551
-0.771849868464 3.57452686453 1.70560236321
1.56198140812 0.324579448367 -1.30821175049
0.34158112838 1.28664337788 0.804479557377
-0.764581697757 3.44790873708 1.74505033441
0.11902516113 4.26417788143 -1.2816832689
-1.17079516583 3.80525577384 0.618644975982
-0.0970999938097 1.92499333126 1.30483945932
-0.472267259507 1.65616552032 -0.500846599621
-0.352674854094 1.23317641266 -0.840545511667
-0.298174419247 4.17075584979 -1.06047593095
-1.5937576126 -0.158782057897 0.769212303457
-1.27500110553 -0.222805002635 0.889456885076
2.00180226914 -1.03340884412 -1.35985301231
-1.72900644966 3.28949256611 0.954077499201
2.10494891513 -0.453638797184 -1.69924851325
2.20850662849 -0.381931031175 1.74472174526
2.96530699369 -0.183758422647 -0.0826648647691
2.2886528983 1.62708370182 -0.891960412049
-1.60587909473 -0.52279572016 -0.58561893203
-1.05484141433 4.04786841962 0.36253502761
-1.27707544053 3.45309705185 -1.44401445336
2.11420490753 1.56169015702 0.77280112964
-1.27770566129 3.79806127544 -0.136067304735
2.75215375063 -0.595162705315 -1.01011252088
-1.23106094608 -0.288252684796 0.745660887932
-0.29005055976 1.69989939363 -0.876714957427
-0.186930364196 4.7101419575 0.919475552668
-1.35437340198 -0.116730785974 0.0411794517114
1.74229366111 -1.47161528505 -0.442435291739
0.341767497906 4.96042537326 -0.0602149144633
-0.107156649002 3.92209919215 -1.38884642657
0.0866689989428 1.2400129328 -0.364372567187
2.88074981665 -0.668698723324 0.228157727645
-0.343116635553 4.64111229509 1.01906536721
-0.462283672401 0.442429268776 -0.589516849099
1.22314146363 0.760567817615 0.485045725975
-0.997907746126 2.12705482318 1.44343730941
0.00520941177983 4.89138094872 0.597000406277
-1.24142586688 0.257524587766 -0.378267987006
0.256865649206 3.67359914116 -1.84120860457
-1.00901547773 1.93989412647 1.30186919312
-0.157746294392 2.40411799559 -1.574239195
1.2829077007 0.853663989692 0.557927464231
-1.94775399472 3.20643244846 0.401100189396
-0.410790380762 0.627070279445 -0.4889756665
-0.340047691832 4.9266672264 -0.396656202096
1.53908132876 0.426725474813 1.26158015519
-1.68256886704 3.75166542611 -0.670819404027
1.25680105457 -0.385814297144 -0.80351699389
1.07368487805 0.354465923808 -0.339723145173
-1.14857843123 3.82565635847 0.556125338384
-0.561572128452 0.299507513621 0.795683416948
1.16398176794 0.38477652787 -0.557912323933
-1.27950519489 3.08294612826 -1.51225353168
-0.163561462327 1.37999073183 1.11980577448
2.07618358388 1.6767225755 -0.51173510057
-1.74552189533 2.13846610275 0.360134775511
-1.2810242072 3.77739252118 0.253277795272
-1.08822838087 2.06132859987 1.32727946751
-0.513612364452 4.25816120999 0.682756280836
-0.742291211341 1.63310885805 1.1940492228
1.66573854654 1.264724396 0.76800279207
1.35143708335 0.0453473379591 1.09985539341
-0.838280051216 4.22359561569 -0.319238899987
1.87772638467 0.598594669907 -1.52848312047
-0.180988900501 1.52381460911 0.699694395727
0.17510669258 1.92686185838 1.65158481805
-0.372075889486 2.03928646351 -1.66016383026
-1.0667340715 1.71124174745 1.02438358512
-1.03795208205 3.08735313477 -1.68410153869
1.89979210156 0.428109197607 1.57039303597
-0.164965495295 1.39566770779 -0.420866033351
0.269653454256 1.4104324354 1.05586408538
2.44951565674 -1.65483794765 0.364259257651
-1.75846121755 2.91358266929 0.913262474093
-1.14128504295 4.55699538278 0.414516335031
2.2725334793 -1.82819074467 0.079935740865
-1.35460531278 3.9443640321 -1.11832606433
1.50324556877 -0.933609322409 0.922585446672
-0.121793282642 1.35906565669 0.38483125285
1.98495071566 -1.57979307645 -0.598309430754
-1.23189405535 3.06072414212 1.57005178645
1.81526534487 0.275919969233 1.52509542461
0.0394629125627 1.90395127691 1.43700536212
1.23681380925 0.879872833487 -0.0669817653663
-1.46620516616 3.36143672307 -1.26474334769
-0.0712804003912 4.92367301987 0.376087789726
-1.13154738361 -0.353619486836 0.531255856003
-1.36675877595 2.51007935603 0.478877323659
2.72347146764 -0.783570309576 0.857130522122
-0.73107999403 -0.603632499266 -0.578116509157
1.49556917815 1.22390754883 0.406691145385
-1.88966218256 3.23875152925 -0.592444091741
1.48394037164 -0.839663706577 0.977121785752
1.58526133183 -0.796732523367 1.16083410728
-0.899520761798 4.56474497379 0.751198100236
-0.314170116904 2.40415129759 -1.39804380408
1.51518125817 1.05729532519 0.716986010805
-1.7274631147 3.95230910301 -0.0640264687495
-0.404025192439 -0.664583426421 -0.392129582277
1.57937362476 0.0902996856104 -1.34957266259
-1.45139880306 0.105479244003 0.885857972105
-0.136909737836 2.49231290078 1.62123246061
-1.2258638073 4.47026051321 0.576473935854
-1.23077513353 0.285685189657 0.704425839775
-0.824600178543 4.17536837814 -0.541388854782
-0.316777152729 3.19025272196 1.53616118093
-1.29531252747 3.49681601999 -0.575668621322
2.80489208956 0.750485149851 -0.705488725405
2.44798807916 -1.65559462858 0.297318993954
-0.0217286886047 4.82833244317 -0.714041312008
0.172574839843 2.74136596757 1.80798103972
-1.11805496711 0.387607466601 -0.62199932245
1.50870920257 -1.2233685854 0.348352617046
-1.85867027672 3.65267975698 -0.070908354195
0.079185186397 4.74204642808 0.911137155692
-0.218658881054 4.30455560546 -0.949441934604
-1.70248454613 0.604240851756 -0.365596509305
1.8957618939 -1.60495033308 0.148601733862
-0.657736092169 1.29920958252 0.7259109805
2.62529608338 0.116330968878 1.41934427518
-0.833193537371 3.77257858727 -1.64564678728
-0.919230382916 4.74344161264 -0.338689021988
1.25350827222 0.765862243137 0.570397242783
-0.613034655293 3.8211457831 -1.10849837828
2.04331743062 1.02415853271 1.37501569435
-0.398357445725 4.10873767986 0.934586597646
-0.435794627512 2.66653152897 1.92282533016
2.31728503294 1.69438327208 0.71964060045
-0.855196517139 0.371109129035 -0.413535394913
-1.64120651868 3.33417944372 1.01290594606
2.37007256324 0.734699045394 -1.60219218338
-0.965725568726 3.0687443567 -1.74833278677
-1.34170785342 1.53368006031 0.0671869261589
1.87503463435 0.614430848473 -1.5148163082
2.42850873758 -1.73278549384 -0.306390885627
-1.18956879778 1.45388576115 -0.320743893677
1.4131357048 1.1463303273 0.160356933509
-0.55051493152 1.43123023417 1.08043036251
-0.601618208001 3.05426901017 -1.87681536475
-1.15283237587 4.57463940302 0.158594728582
-0.0360359262235 1.43423296718 -1.17007950705
2.9587360599 0.481202409889 -0.0764212515063
-1.47388795889 2.42764074965 1.16275161358
-1.64777413133 -0.197220306508 0.704246684158
1.92241860294 -1.56871777789 -0.584371714447
-1.33510880395 4.28215325249 0.711330045658
-1.76410680152 -0.230751510723 -0.59076217161
1.44457812154 0.424423801363 -1.16878300598
-0.732477545705 1.89573661968 1.49409537581
-1.73519341244 2.24632864779 0.615422340951
2.10016365103 -1.41189589051 1.01860326687
-1.03025537634 2.16006475958 1.42857404677
-1.13015809847 1.80656804368 1.12906111697
0.0585867118775 1.45619648531 1.19100983954
2.14290697725 -1.77797120925 0.236392061566
2.90141549569 -0.376207000099 -0.489274974221
0.220808286186 1.18829858915 -0.470784510133
-0.254633615882 1.05631309755 0.200763145932
-0.135222885718 3.78931951648 1.44688485923
2.51651019611 1.30123911091 0.978695972768
-0.174218299198 1.99156146813 -1.29032618514
-1.43017778182 1.76631871831 -0.505901123432
2.75666594397 -1.13381731852 -0.13917223703
-1.50391131567 -0.581713370941 0.586071873131
-1.04847022793 1.99295150805 0.467361164512
1.72080047556 1.50697352075 -0.288704068089
-1.182156162 0.882383571353 -0.314363125042
0.0516977809172 1.8695968304 1.41351633073
0.128295660948 1.32317631701 -0.780124722003
-0.132210721248 4.60627050094 -0.559298514737
2.13291830018 0.327497193171 1.7239213151
-0.554218264601 4.68130287656 0.848745789944
-1.11708511985 2.03906631162 1.30038173063
-1.33337712067 1.55893955451 0.12039679111
-0.665216166478 2.04409316693 0.98484878202
-0.679996589381 2.57381592647 1.32479514916
-1.22943373691 0.856393482681 0.408202193767
0.203382547648 4.70072938858 -0.936165481095
0.33208433638 1.79647614101 1.50389547151
-0.44019190859 1.66336910196 1.38510577062
0.334286332619 4.75408387002 -0.816915808069
1.27899912094 -0.947569437874 0.231649487247
-1.55354777888 0.515178212314 0.635886405194
-0.633159711361 -0.059823468374 0.442641050764
-1.7189140658 2.63053831088 0.871915571881
1.81895835559 -1.09725073019 -1.12012635311
1.55288652635 0.722459161926 -1.16324384828
2.6966657031 -1.12975235867 -0.398555177432
0.0289728445944 4.05682231362 -1.41440567361
-0.48058069475 1.61948910541 0.355847071571
-1.05939004199 -0.422291590507 -0.592747561109
-1.38511210529 0.787435032498 -0.399402565642
-1.93622030135 0.192235665236 -0.0312769491991
2.06546387529 0.392041857193 -1.69810312099
2.52677004432 0.915075577455 -1.23267672128
0.0321391564151 2.35010468738 1.66326880249
-0.771888177605 1.85365913905 1.43198917016
0.259398199656 3.11274714872 1.89095611133
-1.50365125091 0.82412011496 -0.0298532003527
-0.178335744329 2.45629187895 1.8775113409
-1.38135912331 -0.840850444263 -0.266162197908
1.11901754175 0.528388451181 0.146289615775
-1.24364516918 3.76800304403 -1.30608734729
-1.15609745786 1.60076962387 -0.767615615521
-1.03947627172 4.07463341294 0.266879986654
-0.664715020334 2.79129684972 -1.37822571168
0.0875637426738 1.19406634361 0.769372759842
-1.04448664268 0.379162535047 0.62613121812
-0.314055603884 0.483797302684 0.489073617285
2.01983014347 1.08801712071 -1.30760402528
-0.681469984138 1.64167431451 0.205658748489
0.216221441076 4.84228505525 -0.0156284614321
2.93750920014 -0.460126554331 -0.0847461212783
-0.498517720714 2.26744212265 1.26086423836
-0.845100105024 2.58976830682 -1.20203792194
-0.54674740377 0.827849996164 -0.184129798078
0.346863470002 2.70198968303 1.87949443443
-0.155211608611 1.53260404665 1.29716621199
-0.451506296014 4.14568674645 0.883208295835
-0.860767774467 2.22412747324 -1.01528330856
-0.667626521793 3.43100529561 1.81727262711
-0.770142519538 4.78672711977 0.408106843073
-0.0833330181938 3.70512102877 1.52794317424
-1.49890534644 2.81041431536 0.172564970336
0.238624152776 1.82561479112 1.56648153344
-1.32186477204 4.45682789602 -0.34391082941
2.5472629545 1.49329174079 0.354955821305
0.152540043191 3.11466344922 1.95604842405
2.62524894514 1.34080200638 -0.542816954002
-0.999352532056 -0.984433943544 0.124429943894
2.06267665433 1.67703422869 -0.460846252994
2.58942619863 -0.337675281202 1.4578434439
2.20249530031 -1.72900420982 0.597479269228
0.187813338747 4.09460797596 -1.63061147307
-1.77036609468 2.3896569577 -0.67422291658
2.31108436893 1.56277505761 1.01546643248
-0.296879077447 1.90475144583 -1.62881944487
2.25779456865 1.76366703019 0.40282351836
-1.12775404353 3.33928365149 -0.957329295027
-0.748777560305 1.90218591091 1.48616752567
-1.45955218733 3.13555895791 -0.460932991063
-0.435761667884 1.95677860768 -1.02795495095
2.41516030461 0.275763084079 -1.71692374541
2.23526707723 1.8234362667 -0.215061133483
-0.606646337537 -0.0537800344122 -0.404264128937
-0.0769752807707 3.77608373634 1.8318248547
-0.0406096232098 2.04953102499 1.46859752537
-0.756643139098 -0.437002523981 0.822458855753
0.138238075767 2.84674958376 -1.84122052527
-0.827048715593 4.57955835748 -0.792354148263
-1.67863593281 2.97350139611 1.04143957851
-1.03346771703 0.821588738213 0.535473689434
1.53930673298 0.607938477351 -1.18852714727
1.59027925151 -1.36524475788 0.27341663041
1.4612085028 1.27547062474 0.0162192816377
0.0498828927374 2.79345635871 1.98408638463
1.75121995257 -0.9738701018 1.17200838094
1.83873349122 -1.52746449919 -0.453410297819
2.64616359421 -1.3776609816 0.190647014794
-0.592187419348 0.560085195088 0.708282376538
-0.223673207641 3.12583971833 1.61541463669
-0.959472723736 2.28262528303 1.56454680647
0.0464305039838 4.76305749476 -0.142062782887
1.42625680736 0.0403356346127 1.17926875273
2.44133295139 -0.865757412966 1.44725480351
1.55166436021 -0.425802074726 -1.31079899737
0.0404444304196 3.89651682401 1.75859262232
-0.573765082414 3.72015241451 -1.22471485872
-0.101389285819 1.1145031793 -0.555391159867
-0.612890765385 -0.285456579672 0.82764369093
1.5044227893 -0.643584556466 1.15756600428
-1.13194167899 0.418349440226 -0.577802196085
-0.592847364997 4.27202324753 -0.585942496289
-1.4981113678 1.73711406387 -0.358605089673
-0.822695782516 2.03506975158 0.81731657373
-0.214913430943 0.497688956141 -0.341562127006
2.08776674998 1.55574068558 -0.749264529909
1.94870963266 1.24404897504 -1.15317430618
1.58681406184 0.255751948887 -1.38233191803
2.50680128559 0.13792577628 -1.6368976427
-1.43108178949 2.02223955958 0.990391859186
-0.308484459133 -0.674922007327 -0.188549220991
1.6286803958 1.04062454087 -0.926959136064
2.50126534137 -1.55146867815 0.527424241485
2.69716866273 1.24188787802 -0.392874542204
0.323167378558 4.43245709257 -1.33787461117
-1.74494827843 3.07224986124 -0.908547917703
-1.17054660039 3.92036085027 0.187834313096
-0.471501272739 4.65437322617 1.01511684433
1.75049437531 -1.26901582695 -0.865926877124
2.55116321777 1.16682748028 0.916502712711
-0.8117904079 4.26359412044 0.143553877198
-0.933780143079 -0.716295654506 0.684208208907
0.228047815278 1.77990600155 1.55204825664
-0.117845536805 2.37427496049 1.59053905089
-0.884524171185 0.342085136538 0.426481815963
-0.399095699476 2.82467371053 1.45076101006
-1.39799935219 3.45060472152 -0.448373575126
2.35493396251 0.101514565886 -1.8474459761
-0.353288499831 4.2254053378 -0.841153567592
-1.18987545165 0.315338183108 0.458484975177
-1.79564550024 0.165284280207 -0.543901288616
-0.145487483414 -0.247979622043 0.44526928322
-0.179073215025 2.52204382884 1.55069303016
-0.416467933196 4.26543801665 1.4438190646
-0.167457112536 1.74408219553 1.12341773224
-1.18972361422 1.9844380534 1.22942596985
-0.908774258197 1.28685382678 0.314260965922
-0.658921851946 4.26972416769 -1.33392131436
-1.6460966156 3.41628458997 0.985066375489
0.354334077634 2.11745880423 1.68821462516
-1.41480172463 4.02573547596 -0.887582406887
-1.84233570068 3.7242934286 -0.168878405435
-1.11692593498 4.62455451998 0.263484061453
2.59622673293 -0.805608551405 -1.22282086608
-1.3537264683 4.04632014214 -0.971100535699
-0.41441158032 -0.238492559937 0.733856613095
-1.67714353595 3.79343782728 0.626358257234
-0.0692338644165 -0.264323472401 0.17369749675
-0.630695519725 3.66440410485 -1.72351804965
0.165410851935 3.6104097601 1.86102553324
-1.19878603653 3.89684119881 0.223947455316
-1.4699899562 2.59426038907 0.13685206345
-1.84656189677 3.6689878995 0.037931683686
1.71915932418 -1.16714649544 0.97085372528
-0.507944586433 3.15886119534 1.4332631533
0.18825689403 3.50341634569 1.80466300124
2.49573971453 -0.0946166582897 -1.57006912793
1.83965283211 1.27718040037 0.993828330411
-1.17986568485 2.55141505613 1.53253378254
-1.29114192988 3.51811639972 0.651923189404
2.04442063141 -0.592170649861 1.63902236068
-1.51521928594 2.81718042205 -0.22931978927
0.131112924793 2.76556677702 -1.97133148162
-1.18012091191 2.24081138983 0.559166169334
1.61562141511 -0.69144297356 -1.21901663978
-1.44371792024 2.77753900108 0.476615356256
-1.03380967464 2.79120837708 1.11992132582
1.498809468 1.20848072652 0.518179209054
-0.217084295149 -0.165753572506 0.553835770294
2.70449731816 -1.11334733961 0.486967415636
-0.730349680085 0.275174281293 -0.615838452506
1.94359080752 -0.535456562537 1.57101268566
2.72091995775 0.917344942064 0.680256679401
2.32662274173 -0.551581534369 1.75359285259
0.34123108415 3.83855575064 -1.69477564675
-0.265872290351 0.621536080491 -0.0956654847657
-1.79913992922 0.373585827662 -0.395609124388
-0.30744149166 4.80530622408 -0.765020284385
2.69546189172 0.0205346435435 1.23799728295
1.75578897376 1.48624188775 -0.480529120572
-0.312617947079 4.74274054695 -0.920884436191
-0.738454348374 3.46816934544 -1.77856012507
-0.91032237008 0.496417173213 -0.620195177219
-0.194868067523 2.47547190875 1.88875020873
-1.36872086391 0.042976284874 0.776472839373
-0.688971002991 4.36769506609 -0.166841703064
0.409039991647 1.08872229641 0.172392086183
-0.724452562708 3.65497562174 -1.15024180843
2.5923895556 -1.01489913637 0.997298722616
-0.648916227154 4.74091818641 -0.660320093534
-1.14040430681 3.55346261244 0.847196187309
-0.56500125147 4.1917775149 0.740377265332
1.52720022558 -1.33283099703 0.16701822887
-1.78357727173 3.39405696868 0.778277557759
-1.45205784263 3.60203575637 1.15821785279
-0.979850159261 1.32578236224 0.21962500252
-1.3526426461 2.77915534982 -1.40693439649
-0.249080158164 4.29864555972 0.901439121298
0.256933711192 4.78970558354 -0.525334909808
-1.93588921502 2.58055102639 0.271058853425
-0.534317024406 4.88778140884 -0.225523799922
-1.26274146805 0.259477880008 0.00312908935814
0.233801124794 4.83494169342 0.757965561189
2.7469667305 -0.924782183661 -0.761308267408
-0.0546767587748 4.47599020685 0.909664254792
-0.939168337329 3.8748987898 0.843599143314
1.08831569047 0.510082180188 -0.0772563833397
1.8877715552 -1.07645384516 1.19041892852
-0.996714200625 1.9117855929 -0.373299575386
1.23744793357 -0.884582518362 -0.146576299549
-0.22326289518 0.536269138476 0.320771671953
-0.620244819133 4.38189068299 0.129934141611
1.62085166759 -1.33200018023 -0.483397166493
2.18614363893 1.12647694781 1.37839445512
2.37326625803 -1.05871849641 -1.48449449084
0.19317210766 2.86979429578 -1.87068170023
-1.10885336513 4.33382634762 0.891027337066
2.4891957094 -0.0208739169386 1.64914930522
-1.75157766369 2.08018180868 0.144201166502
-1.85461129512 0.254805228802 -0.330134119499
-0.636635476409 -0.0813037788317 0.352759977324
-0.39982567351 0.271641529249 0.73494915313
2.46382687737 -0.178590599345 1.62152171537
-0.716329843366 0.910909959421 -0.297941684499
-1.37836432505 2.54721291447 0.531455452257
0.146676906172 2.07405193843 -1.58000534817
2.92811841472 0.370558789227 -0.512072131973
-0.774367687001 4.29977077876 0.00295381811969
2.91480678544 0.534788118493 -0.324512940188
-0.285132710941 3.18013670805 1.53992760022
-0.490420693212 2.62679809161 1.86999542488
2.217734635 0.460085052444 -1.75481540716
-0.190594449006 1.46203190445 1.20290187712
-0.925750981123 1.94851151782 0.632190469179
0.0853128584561 4.97509095347 -0.0841005513883
-1.77922599694 2.92474438804 0.869140294364
-1.05218169727 -0.852761447661 0.495157018598
2.68951776521 1.24809466958 0.112527515468
0.12071503302 4.04397265986 -1.50872732388
0.275083092948 3.11082101085 1.9558142745
2.33142900784 1.7456290178 0.548650088517
1.10685264803 0.0730537636935 0.591387267013
1.268390981 0.686109026399 -0.633774066861
2.84274665963 0.564885837687 -0.734150931359
-1.19366835638 3.36744469512 -0.84989548388
-1.31205527665 0.325337660437 -0.583207876633
0.0564926440417 1.17890469268 0.755382179599
-1.79379655473 3.50516271857 -0.676912045718
2.03282918765 -1.5325211547 -0.832394123742
0.135112061825 2.21630465095 -1.64750543823
0.290211162444 1.120913778 0.0936330444997
-0.39472963295 1.07808343258 -0.0753155637537
2.35447214727 -0.0861541442242 -1.77785449346
2.78636524925 -0.950937586853 -0.514767017687
0.142810356424 1.15861347164 -0.195886477498
-1.10628578669 1.49876849634 -0.584604452046
-0.806340013395 -0.334747474241 0.583972440053
2.05151291382 -1.7446687741 0.120201091633
-0.611819145919 2.30433879702 1.1984390362
-0.753068319773 4.70708085506 -0.652805441895
-0.231492198968 4.95814360415 -0.282391935805
2.71163197289 0.445589369413 1.08998213656
0.0937921532605 1.27547230296 0.619338089339
-0.800207915716 1.71697173199 0.230062245309
2.2960520299 -1.85839597573 -0.0339102957813
-0.479505259733 3.65563643015 -1.80776569437
0.0884951778501 4.66056323699 -0.687251873624
2.13916652673 -1.13484473326 1.38797163029
-0.789101052878 -0.822689980676 0.514876484654
-0.784915478153 0.448849555086 -0.581399217687
-0.991946604194 3.62858519464 1.60590343252
-1.35729913623 0.00452676331689 -0.203435705346
-0.0294019304571 4.0270467206 -1.38400385642
-0.491736440537 -0.325705273271 0.780692682247
-1.0660448276 1.72985507073 1.0722270216
-1.90132834681 0.111646041326 0.279904371209
1.57116119715 1.19524786368 -0.584515335358
-0.183269373571 0.237809642615 -0.434362219695
1.9482439387 1.19272546201 -1.14244507579
-1.37064621297 -0.31190466782 0.821822964183
-0.108936385331 2.99141361426 -1.96046268146
1.87173756615 -0.28714196969 1.58995690907
-0.757861320339 4.30568991977 0.0108476280656
0.101144233409 3.50813964964 1.71377066903
-1.45075244901 2.66269901019 0.353208672321
-0.712906354295 1.6921626018 -0.271165048748
-0.975906989492 0.85043416152 -0.503764435444
-1.28410844936 0.27631169723 0.336697319289
-1.38488122886 1.90908829872 0.854705511286
2.26266576431 0.230401670487 1.8319401233
-0.379322508202 1.0962491632 0.459715778281
-1.39477351484 3.64809079539 -0.082314160573
-0.668590610832 4.73204308971 0.612213679302
-1.31952141538 3.1267282 -1.46808348596
-0.925050054749 2.85052854067 1.72080163001
0.202050781848 2.15412838913 -1.79419788638
1.9956467727 1.69478549329 0.241434365006
0.329972581731 2.51828455446 1.84268452915
2.17017136089 0.823612799603 1.58953371827
0.107930466795 1.79044623372 -1.3341471481
2.91535895519 -0.285696851 0.492455551158
-0.937253795116 -0.97415498908 0.00273865798256
2.66907322899 -0.0127709645716 -1.36050032701
-0.00589711002803 3.32370850228 1.9249429338
-1.59188742741 3.86899668155 -0.832435176897
-0.66466751432 -0.134119034185 0.233919470096
1.37374266618 1.13933319631 -0.150517371273
2.35839198028 1.20982570362 1.34954382749
-0.413714421536 4.44455637808 0.147517712151
-1.64186839908 3.98772031981 0.37875701217
-0.61455892403 0.0433513801792 0.716275439231
1.83311339298 0.33558006381 1.56773794905
1.67890068983 1.28669663311 0.676224525725
-0.151297787641 1.12867901431 -0.667320343211
-0.0601765822609 -0.194400414737 0.0803339266756
-1.27827140789 1.50739240219 -0.349782518357
-0.465643689416 4.27970667321 -1.40628210476
-0.323507532774 3.85882207437 1.23347876854
-1.44062538407 3.88149484803 -0.985038061403
-0.443799627305 2.01508241258 -1.63476342898
-1.52204214427 4.27030720196 -0.207964903058
2.51831693178 -0.854927173082 1.33984662587
-1.2236381188 0.557252037985 -0.598188164135
1.62273475305 1.21069597327 0.727186983496
-0.165140436387 -0.0504164142494 -0.460476112437
-0.675254837895 2.88389250125 -1.86668205803
2.93731143138 -0.253941882354 0.125834921462
2.52474445678 0.437114019536 -1.514468329
2.88199507917 -0.548917086251 -0.624542851943
1.63883887596 -1.25262538369 -0.717331678772
2.97177038665 -0.00190491961096 -0.0449982534152
-0.572281812864 0.243942895312 0.853276466777
-0.267772070128 2.35545557404 -1.44574477627
2.6837156662 1.29019274788 0.098206161221
-1.31872399812 -0.832475410588 0.377399345432
0.315303094059 2.25444453995 -1.76589992767
0.113918006236 4.41867426348 1.16292437254
-0.678839064485 1.14010242859 -0.268636000433
-1.2401853605 2.09759834581 -0.132046431003
2.11610806522 -1.21256491181 1.25022928331
-1.14079739077 3.96772963057 0.111501128836
2.74051553422 -0.167410838029 1.13159263384
1.650287334 -0.78524681835 -1.17081796053
0.197427498084 2.22025879688 1.83110086066
-1.42369607175 2.07229205893 -0.95780942059
1.63919144018 -0.889545945413 1.14234349764
2.10282987782 0.173106716007 1.77092217478
1.92043244356 1.16555371863 -1.21151438753
1.25938857377 0.0689859668618 -0.916004819736
-0.877280236087 1.75914792283 0.217871796656
0.422762750858 2.50983450265 1.89080903588
1.80488593917 -0.92162812912 1.27926199372
-0.133563259897 4.46767291545 -0.863475214124
-0.719112897985 4.59992443667 0.890088167868
0.179425287839 3.08525202334 -1.85254129889
0.370991070269 4.02150605835 1.65556968879
1.6288674457 0.674877366084 1.24547072072
-0.838652976773 -0.750242947754 0.572676279093
2.83594795027 0.661186522404 0.633249388743
2.45206785926 -0.721642792727 1.48812609856
-0.200539932358 1.05188220367 0.318330753935
-1.09495365309 -0.854857563189 -0.414511403494
-0.463041244255 1.78272440218 1.47746958902
-0.797790201716 0.317056083649 -0.321384546055
1.92209037335 -0.412488818317 1.62781358751
2.21097592073 1.76504798228 0.465791956476
0.0530531693736 2.11364377391 -1.5688356567
-1.7796181 0.572790275904 0.0324429726165
1.19153381291 -0.122912355516 -0.738671872511
1.61675179895 -0.549657188852 1.28495441896
1.80028780554 -1.35508755464 -0.732271911475
-0.724316388428 2.94430459595 1.85984473904
-1.59096108045 1.82032710952 -0.265930054185
-0.17415778933 1.45290959224 0.487550057095
0.191398168679 2.25782405807 1.83731575573
-0.181443992727 4.66012755807 0.1539091255
-1.95130892888 3.09991235488 -0.000990060440783
-1.12038851308 2.15841452535 0.638191363329
-0.426298040123 0.565162857135 0.52796130288
-0.328100359929 2.21012144922 -1.29572481234
-0.968908398697 4.58572199525 0.602353275513
0.187613545273 1.4956872931 -1.09555815448
-1.22799905163 2.34427576283 -1.36888195023
-1.88085294909 0.0462631631682 -0.433481695368
-1.94864276184 -0.160582066896 0.0190685012995
-0.533305617579 -0.625506492104 -0.584091859962
2.90545966385 0.708537527868 -0.227905005608
-1.74478399894 3.05927951966 0.94206651151
-0.515499410737 0.832237944898 -0.182188206532
1.84678389239 0.997644854061 -1.28758983699
-1.10768711325 2.16735899619 0.626508463551
0.0191846870087 4.62101133961 -0.687027101855
0.255722447933 1.67418996716 -1.46533938972
2.39043405142 1.2657916482 1.23404480974
1.80293134728 0.685045922797 1.37892341909
-0.0580973408183 -0.0383527133498 -0.126969412657
-0.333564097193 1.26197666481 -0.894667491035
-1.04227454743 2.77635593868 -1.10200089933
-1.29591773226 0.241750558212 0.499735307881
-0.765257986351 4.63679030501 -0.806043636961
-0.288871492528 -0.41505762304 -0.528795831364
-1.69441131033 1.97122684034 0.0593584586802
-0.887568275735 2.86926055961 1.23065442644
-1.16972805469 2.19518547476 1.36617670964
2.2638366828 -0.793596913189 -1.68060999206
-0.0989257346364 -0.345649989254 -0.0157589284833
-1.66751474863 2.00272251692 -0.386188329857
2.50172537712 -0.0299899137456 1.63204936671
2.73565800275 -1.14490207212 0.0126264232545
-1.32245654713 2.85295217298 1.47850572638
1.57611946975 0.363889007186 1.29621214771
1.22886426419 -0.686714741974 0.587404874181
-0.278722183448 3.86333857345 1.30813033661
2.94887762976 0.35847211523 -0.183627596993
0.231810015895 2.22631279058 -1.72899372054
2.79959975671 1.05855601024 0.00586094974463
1.97732675059 0.764061280919 1.50952448066
1.52406745189 1.32391242442 0.184226453812
2.06684894898 1.59842135836 0.748733203639
-1.57918122433 4.02827298353 0.547978556752
2.24463311983 -0.40136706967 1.78577298363
2.51365143079 1.33744200599 0.918345381153
-1.24919072029 -0.746212491621 -0.550462434885
1.08050102529 -0.42492017414 0.021250579172
-0.044111095273 1.59285740771 1.04504295952
-1.75269776371 2.73767567048 0.816826402637
-1.39443307871 4.04877385573 -0.889226783291
-1.3498076864 0.87403578304 -0.225083885359
-1.01165829207 1.35234347075 -0.341131335501
-1.2058680288 2.11171188707 0.362519159446
-0.293010105894 -0.580027721049 0.28948384324
-1.43996261794 1.84406705763 -0.673583165157
2.45504723555 -1.06491299423 1.26577816046
2.53746647392 0.34110030529 1.50003215768
-0.0909846869549 2.35974653218 -1.60843939859
-0.556300723894 0.433674549702 0.769873278761
-0.459236638392 4.02445156488 1.62285724128
-0.839058061811 -0.3486023715 -0.400425511563
0.0543181122522 3.95440214894 -1.48716481065
2.85462304782 -0.708016853803 0.388098988153
-1.17281443685 0.32272774974 -0.202444698467
2.1586388003 1.06150058538 -1.4491613535
-0.548793299043 1.59535577758 -1.26330242812
1.05424514257 0.000941200074136 0.14061267556
-1.29101702235 2.21374808973 -0.240034494775
0.443976838833 1.82690409676 1.53561256662
-1.18548298141 0.871974499921 -0.344413800402
0.384331244321 2.22058594044 1.79470189224
-1.20510193248 -0.323570906985 -0.30752404164
2.76331302592 -1.11560936633 0.325725792166
2.22377802573 0.750836292134 -1.65833945497
-0.536927521418 1.77983705177 1.43687641351
2.8773063384 0.7544983049 0.0337096923947
-1.73422606846 0.304400309776 -0.551725055159
2.22018465189 0.392211932032 -1.79531518415
-1.04808210022 2.60963717049 1.04106455217
-1.55715516084 3.56128272449 -1.09210047222
-1.4963531089 2.44292243304 -1.14023376814
-0.324810371437 1.82471794956 1.54981298039
1.21306374232 -0.277739354508 -0.785260014847
-1.18464855967 3.71750874795 0.576670279616
0.439945805856 4.19940026994 -1.52009238986
-0.685213743536 2.30790143318 -1.17435486097
2.77621134413 0.552468115522 0.868132040185
-1.53618376532 3.10211841771 0.0253240825912
2.44950619949 -1.23635742574 1.19767816236
-0.967487323077 -0.385434218126 -0.289716340768
-0.0453553218398 1.27289341146 -0.964989169196
1.08110038203 -0.144966669643 -0.504394536733
-1.60225756004 1.91870746062 -0.456163560121
1.78779593325 1.06866522879 1.13634171373
2.96927007444 0.0408976089842 -0.130556255502
-1.6158844804 3.51285638657 -1.00568545236
0.246431173329 4.56549488217 -1.00959886238
-1.33732730004 0.424069526357 -0.590385974361
2.46472446149 0.720253807376 1.4592192462
-1.12923929474 0.753516800753 0.63038530285
2.41659136022 -0.360446871074 1.71315226472
2.14472950777 1.75093535334 0.256051501089
-0.992780145628 1.7240932989 -1.13211399151
-0.232905567944 4.06162725503 -1.23261978478
1.65896118239 -1.1514350747 -0.886821502354
-1.43733378875 -0.375343842994 0.789502625351
-1.76301350016 0.206636886564 0.577140748999
-1.96341974635 2.92615912374 0.211294523113
-0.451275840453 1.64062562161 0.577211586442
-0.12250855776 4.96920284764 -0.0597881961574
-0.790320869256 1.76133097838 0.362633119316
2.20238100816 0.692090635013 1.65787249339
-1.04099792278 1.90858377554 0.234353512427
-0.770163762121 3.21927731855 1.31421465134
-1.0583702315 1.33099445674 0.244357410278
2.36247595533 -0.307880240204 1.75469001475
2.91616804086 0.537186618368 -0.369988829722
0.251645753176 4.89945316049 0.527535814314
-0.0547335515007 0.122404704463 0.13269513785
-0.148261622955 1.72313932491 1.47583235272
-0.872561318545 0.489620565755 -0.610073504483
-0.842730102238 4.54732372669 0.891663034079
-0.602657719225 0.866147941903 0.0329722286692
-0.950843485676 1.68170026162 1.14357825048
-0.0570827721797 -0.0995096420857 -0.0984175284545
2.52495437052 -1.02109090053 1.1730545837
-0.970935256912 3.42436858629 -1.08271253251
2.96977741323 -0.205720645541 -0.255809285629
-0.134791403844 3.58346983609 1.89422708526
-0.504939256207 2.20750748534 -1.71060969346
-0.161850851737 0.227532676047 0.475210238075
-0.450341282091 2.61476980625 1.89041819854
-1.91491430001 0.0469573808169 -0.321259101417
0.245906496863 1.56678502615 -1.31566547205
-1.87037614604 2.42609321944 -0.279987199863
-1.67336582618 2.41855007135 -0.905786955257
2.03690791993 -1.32959816608 -1.09472378944
-0.180060224312 1.78427356712 1.08598678531
-0.209700952368 4.92720181629 0.307651730417
1.13178358519 0.201799101098 0.561274667793
-0.686301049722 3.36824390536 1.80246572904
-0.0574433269573 1.72057729211 -1.19653150305
1.14382321516 0.622177150206 0.0636314930055
1.90632090854 0.917253369036 1.34758148327
-0.942668762641 4.07980974455 -1.37199422037
-0.751267652074 4.02965809297 -1.49345509714
-0.892426353296 2.86139149876 -1.74807686439
-1.23173648779 1.71399279824 0.798710460256
2.58984031971 -1.39192923858 -0.497580604958
0.13378243884 1.97209425563 -1.70043545338
-0.858517387121 1.75057120876 1.27867803102
1.01314002648 0.221129782419 -0.0125244823091
2.14955542595 0.0378587175044 1.79649500084
1.84816765693 1.22407047982 -1.01071372727
-0.133690911167 4.92226955904 0.335993768456
-0.596365791329 1.68172281901 -0.434660906367
-1.21337698925 2.57544177342 0.859636296899
2.32588512854 0.975918265139 -1.58747922691
-1.66843367851 4.08738942821 0.106026431813
-0.689031191021 3.78216590591 1.10671863907
2.86170286871 0.6513569559 -0.538190528339
1.65003224081 0.29926939207 -1.44260571185
-1.86283820188 -0.428834138617 0.0421176837067
-0.693273807268 -0.72514034211 0.537320551784
-0.542476069245 3.40353765086 1.36283832146
-1.91002941592 3.57308733877 -0.00332256404137
-0.641485711292 -0.00792175752887 0.882583463082
-0.609164265226 -0.346408839507 -0.612857875059
-0.255259372534 4.92189405048 0.210269481633
-1.54062681791 2.0385172067 -0.783963687031
-1.68577271866 3.05249136938 -1.04403712867
-1.18553898021 3.166846199 -1.56258356803
-0.499546915485 3.34950983472 1.90269309664
1.15250724996 -0.616454131079 -0.31060131086
-1.43357787144 3.4758886758 -0.211105927744
-1.59192227292 -0.704156524521 -0.263912681701
-0.360787798362 2.25323583593 -1.80956539144
0.291468357456 4.91557778667 -0.276540009826
-1.81746990493 3.00614064041 -0.818658925745
0.322143269109 4.63102631633 -1.06709114854
-1.10895365432 3.66743379895 1.50828150826
1.32680570777 -0.869659710469 0.530593951685
-1.25904669859 4.33982652829 0.687706152628
2.77726483113 0.625700877613 0.89492906192
-0.180374007026 3.80545576143 1.78294552603
1.23506887097 -0.80539218499 0.423956478101
-1.43515686023 1.78459203769 -0.633384635458
0.125594553752 4.78184109233 0.505147980436
2.37918514214 -1.06314007687 -1.44358412089
-1.44319854472 2.49318241257 0.16196108847
-1.01858046886 2.95050526737 1.10726586795
2.4929088684 0.909475439513 1.31984362579
-0.441302404886 4.67014750499 0.971155401015
-1.05908672447 3.69413993462 -0.849613526702
-0.391054244392 1.14005819617 -0.472138596714
-0.748425902036 3.12125677038 1.33401712431
-0.019539355746 4.48912380497 -0.937360662757
-0.255645339931 3.56312630432 1.49018941742
-0.607501960449 2.83478990234 -1.38340410199
0.0811063310705 3.99992968348 1.49478212764
-0.542951875018 0.769299042591 0.408818956369
1.06608948704 0.430546306996 -0.265401529599
0.206754779653 1.59683393546 1.39452167869
1.6298047882 -1.09274236358 -0.878419637221
2.73148639935 0.970809662044 0.561967454767
-0.292457853146 3.16961216075 -1.53594514996
1.51122799107 -0.181657746568 1.27674565264
0.235948188609 1.96449407668 -1.65698412521
-0.583122281594 1.60618067008 -0.118454071948
-0.0613343489633 0.197439125786 0.0405836920962
-1.82903079631 3.12972640587 -0.728066316935
0.00400156204282 2.13429726344 1.78923087788
-1.35681423301 0.152600475928 0.367626042037
1.13069512689 0.670173033953 -0.0832093252221
-0.225170397409 3.98181449722 1.6881436636
1.74733495079 1.44052932025 0.484891836723
-0.939466560688 4.22994619018 1.25853309705
-1.75522517046 0.254271819927 0.529339467332
-0.84323024043 2.2290619366 -0.989641278594
-0.222156385367 0.320877370391 0.506342722992
-1.44400754227 1.70698860403 0.448479149093
-1.40013315085 2.3741158045 1.23695701297
-0.676303966081 3.98970529485 1.54481569577
-1.47154050083 2.99452129125 -0.397971234697
0.154025155104 3.52926079621 1.91394082499
1.54609105498 -1.31767683484 -0.0650918091186
2.74745390965 0.579368922499 -0.932154656567
-0.576802473001 1.12981015453 -0.106652503552
-0.482145883999 2.77073466794 -1.89137023375
-1.06914000611 -0.370536516963 -0.382126784199
-0.539186386975 0.784968960982 0.305188734474
-0.120858604976 1.03989990528 -0.0207740389175
1.81429384254 -0.830603940938 -1.37260369927
-1.51411784348 4.26288103436 -0.300797557965
0.0198411478743 2.03212966026 1.47836408112
-1.00735861154 2.68019640658 1.10604537544
2.1950159127 -1.14541027449 1.39656857004
-1.43151557591 2.42966418416 0.0123251240877
2.45982194022 -0.0603342438638 1.6910682243
1.20438135603 -0.823879240408 0.189420364851
2.88369397023 -0.426451156186 -0.522679288977
1.50559978195 -0.796396084807 -1.04046027876
1.83624169592 -0.052059173162 -1.58065355692
1.16227474742 0.752832004969 0.0596558469616
-1.90673467463 3.29690467802 0.462371827402
-0.219747871784 1.16084886533 -0.645176837506
2.02736005936 1.3732299653 -1.01218285628
1.2977425949 0.198139739277 -0.984911256199
-1.56439226227 3.83805130799 -0.861500706852
-0.702558469247 -0.592309621633 0.739520314319
-0.742585027568 -0.949174092012 0.0413355604788
-1.94837597227 2.85528984067 -0.391026363995
